# .PCD v0.7 - Point Cloud Data file format
VERSION 0.7
FIELDS x y z
SIZE 4 4 4
TYPE F F F
COUNT 1 1 1
WIDTH 1465
HEIGHT 1
VIEWPOINT 0 0 0 0.707107 -0.707107 0 0
POINTS 1465
DATA ascii
0.18619874 0.13299909 0.77800006
0.18756284 0.13299909 0.77800006
0.18892692 0.13299909 0.77800006
0.19029102 0.13299909 0.77800006
0.19116242 0.1326572 0.77600002
0.19301921 0.13299909 0.77800006
0.19438329 0.13299909 0.77800006
0.19574739 0.13299909 0.77800006
0.19711149 0.13299909 0.77800006
0.19847558 0.13299909 0.77800006
0.19932595 0.1326572 0.77600002
0.20068653 0.1326572 0.77600002
0.20204712 0.1326572 0.77600002
0.20288345 0.13231529 0.77400005
0.20424055 0.13231529 0.77400005
0.20559762 0.13231529 0.77400005
0.20748946 0.1326572 0.77600002
0.20885006 0.1326572 0.77600002
0.21021064 0.1326572 0.77600002
0.21157123 0.1326572 0.77600002
0.21293181 0.1326572 0.77600002
0.21429239 0.1326572 0.77600002
0.21565299 0.1326572 0.77600002
0.21701357 0.1326572 0.77600002
0.21837416 0.1326572 0.77600002
0.21973474 0.1326572 0.77600002
0.22109534 0.1326572 0.77600002
0.22245592 0.1326572 0.77600002
0.22323966 0.13231529 0.77400005
0.22517709 0.1326572 0.77600002
0.22653767 0.1326572 0.77600002
0.22789827 0.1326572 0.77600002
0.22925885 0.1326572 0.77600002
0.23061945 0.1326572 0.77600002
0.23198003 0.1326572 0.77600002
0.23334061 0.1326572 0.77600002
0.2347012 0.1326572 0.77600002
0.23606178 0.1326572 0.77600002
0.23742238 0.1326572 0.77600002
0.23878296 0.1326572 0.77600002
0.24014355 0.1326572 0.77600002
0.24150413 0.1326572 0.77600002
0.24349065 0.13299909 0.77800006
0.24485475 0.13299909 0.77800006
0.24621885 0.13299909 0.77800006
0.24758294 0.13299909 0.77800006
0.24830706 0.1326572 0.77600002
0.25031114 0.13299909 0.77800006
0.25167522 0.13299909 0.77800006
0.2530393 0.13299909 0.77800006
0.2537494 0.1326572 0.77600002
0.25576749 0.13299909 0.77800006
0.25647059 0.1326572 0.77600002
0.25783119 0.1326572 0.77600002
0.25919175 0.1326572 0.77600002
0.26055235 0.1326572 0.77600002
0.26191294 0.1326572 0.77600002
0.26327351 0.1326572 0.77600002
0.2646341 0.1326572 0.77600002
0.26530913 0.13231529 0.77400005
0.2666662 0.13231529 0.77400005
0.26802331 0.13231529 0.77400005
0.26938039 0.13231529 0.77400005
0.28158095 0.13761474 0.80500007
0.2822893 0.13727285 0.80300003
0.28334391 0.1371019 0.80200005
0.2833299 0.1364181 0.79800004
0.28080422 0.13453765 0.78700006
0.28146699 0.13419574 0.78500003
0.28212273 0.13385385 0.78300005
0.2824094 0.133341 0.78000003
0.283777 0.133341 0.78000003
0.28441346 0.13299909 0.77800006
0.28577754 0.13299909 0.77800006
0.28640348 0.1326572 0.77600002
0.28702241 0.13231529 0.77400005
0.28837949 0.13231529 0.77400005
0.28936225 0.13214435 0.77300006
0.29071757 0.13214435 0.77300006
0.29207289 0.13214435 0.77300006
0.29266903 0.13180245 0.77100003
0.29402086 0.13180245 0.77100003
0.29613888 0.13214435 0.77300006
0.2974942 0.13214435 0.77300006
0.2980763 0.13180245 0.77100003
0.30020484 0.13214435 0.77300006
0.30156019 0.13214435 0.77300006
0.30291551 0.13214435 0.77300006
0.30348358 0.13180245 0.77100003
0.30483541 0.13180245 0.77100003
0.30618724 0.13180245 0.77100003
0.30753905 0.13180245 0.77100003
0.30889088 0.13180245 0.77100003
0.31024268 0.13180245 0.77100003
0.31159452 0.13180245 0.77100003
0.31294632 0.13180245 0.77100003
0.31429815 0.13180245 0.77100003
0.31564996 0.13180245 0.77100003
0.31700179 0.13180245 0.77100003
0.31835359 0.13180245 0.77100003
0.32053477 0.13214435 0.77300006
0.32189009 0.13214435 0.77300006
0.32324541 0.13214435 0.77300006
0.32502067 0.13231529 0.77400005
0.32595605 0.13214435 0.77300006
0.3273114 0.13214435 0.77300006
0.32781634 0.13180245 0.77100003
0.33002204 0.13214435 0.77300006
0.33137736 0.13214435 0.77300006
0.33187181 0.13180245 0.77100003
0.33322364 0.13180245 0.77100003
0.33457544 0.13180245 0.77100003
0.33592728 0.13180245 0.77100003
0.33727908 0.13180245 0.77100003
0.33950934 0.13214435 0.77300006
0.34086466 0.13214435 0.77300006
0.34133455 0.13180245 0.77100003
0.34268636 0.13180245 0.77100003
0.34403819 0.13180245 0.77100003
0.34628597 0.13214435 0.77300006
0.34674183 0.13180245 0.77100003
0.34899661 0.13214435 0.77300006
0.34944546 0.13180245 0.77100003
0.3507973 0.13180245 0.77100003
0.3521491 0.13180245 0.77100003
0.35350093 0.13180245 0.77100003
0.35485274 0.13180245 0.77100003
0.35620457 0.13180245 0.77100003
0.35848391 0.13214435 0.77300006
0.35890821 0.13180245 0.77100003
0.36119455 0.13214435 0.77300006
0.36254987 0.13214435 0.77300006
0.36390522 0.13214435 0.77300006
0.36526054 0.13214435 0.77300006
0.36566731 0.13180245 0.77100003
0.36797118 0.13214435 0.77300006
0.3693265 0.13214435 0.77300006
0.36972275 0.13180245 0.77100003
0.37203717 0.13214435 0.77300006
0.37339249 0.13214435 0.77300006
0.37474781 0.13214435 0.77300006
0.37610313 0.13214435 0.77300006
0.37648186 0.13180245 0.77100003
0.37783369 0.13180245 0.77100003
0.38016912 0.13214435 0.77300006
0.38152444 0.13214435 0.77300006
0.38287979 0.13214435 0.77300006
0.38324097 0.13180245 0.77100003
0.38559043 0.13214435 0.77300006
0.38694575 0.13214435 0.77300006
0.38830107 0.13214435 0.77300006
0.38864824 0.13180245 0.77100003
0.39000008 0.13180245 0.77100003
0.39135188 0.13180245 0.77100003
0.39270371 0.13180245 0.77100003
0.39303333 0.13146055 0.76900005
0.39438164 0.13146055 0.76900005
0.39470077 0.13111866 0.76700002
0.39604557 0.13111866 0.76700002
0.39739037 0.13111866 0.76700002
0.39873517 0.13111866 0.76700002
0.40008 0.13111866 0.76700002
0.4014248 0.13111866 0.76700002
0.4027696 0.13111866 0.76700002
0.4041144 0.13111866 0.76700002
0.40493059 0.13094769 0.76600003
0.40627363 0.13094769 0.76600003
0.40761667 0.13094769 0.76600003
0.40895975 0.13094769 0.76600003
0.41030279 0.13094769 0.76600003
0.41164583 0.13094769 0.76600003
-0.00070747 0.13937159 0.80700004
0.00070922333 0.139717 0.80900002
0.00212767 0.139717 0.80900002
0.0035461166 0.139717 0.80900002
0.0049645635 0.139717 0.80900002
0.0063830102 0.139717 0.80900002
0.0078014568 0.139717 0.80900002
0.0091971103 0.13937159 0.80700004
0.01516195 0.19912694 1.153
0.01712393 0.19843613 1.149
0.019205136 0.19912694 1.153
0.021153091 0.19843613 1.149
0.02316767 0.19843613 1.149
0.025182249 0.19843613 1.149
0.02719683 0.19843613 1.149
0.029211409 0.19843613 1.149
0.031117283 0.19774531 1.1450001
0.033240572 0.19843613 1.149
0.035132416 0.19774531 1.1450001
0.037139982 0.19774531 1.1450001
0.039147548 0.19774531 1.1450001
0.041155115 0.19774531 1.1450001
0.043162685 0.19774531 1.1450001
0.045170251 0.19774531 1.1450001
0.047177818 0.19774531 1.1450001
0.049185384 0.19774531 1.1450001
0.05119295 0.19774531 1.1450001
0.053200517 0.19774531 1.1450001
0.055208083 0.19774531 1.1450001
0.05721565 0.19774531 1.1450001
0.059223216 0.19774531 1.1450001
0.061230782 0.19774531 1.1450001
0.063238353 0.19774531 1.1450001
0.065245919 0.19774531 1.1450001
0.067253485 0.19774531 1.1450001
0.069261052 0.19774531 1.1450001
0.071517587 0.19843613 1.149
0.073532172 0.19843613 1.149
0.075283751 0.19774531 1.1450001
0.077291317 0.19774531 1.1450001
0.079298884 0.19774531 1.1450001
0.081590489 0.19843613 1.149
0.083314016 0.19774531 1.1450001
0.085023515 0.19705451 1.141
0.08702407 0.19705451 1.141
0.089336716 0.19774531 1.1450001
0.091344282 0.19774531 1.1450001
0.093351848 0.19774531 1.1450001
0.095359415 0.19774531 1.1450001
0.097366981 0.19774531 1.1450001
0.099374548 0.19774531 1.1450001
0.10138211 0.19774531 1.1450001
0.10338968 0.19774531 1.1450001
0.10539725 0.19774531 1.1450001
0.10740481 0.19774531 1.1450001
0.10941238 0.19774531 1.1450001
0.11141995 0.19774531 1.1450001
0.096691951 0.14109862 0.81700003
0.098124422 0.14109862 0.81700003
0.099556893 0.14109862 0.81700003
0.10074215 0.14075321 0.81500006
0.10217112 0.14075321 0.81500006
0.10334585 0.14040782 0.81300002
0.10425583 0.139717 0.80900002
0.10567427 0.139717 0.80900002
0.10682797 0.13937159 0.80700004
0.10797465 0.13902618 0.80500007
0.10938608 0.13902618 0.80500007
0.11107279 0.13937159 0.80700004
0.11248773 0.13937159 0.80700004
0.11390267 0.13937159 0.80700004
0.11531761 0.13937159 0.80700004
0.11673255 0.13937159 0.80700004
0.11814749 0.13937159 0.80700004
0.11956243 0.13937159 0.80700004
0.12097737 0.13937159 0.80700004
0.12208898 0.13902618 0.80500007
0.12350041 0.13902618 0.80500007
0.12491185 0.13902618 0.80500007
0.12600943 0.13868077 0.80300003
0.12741736 0.13868077 0.80300003
0.12866487 0.13850807 0.80200005
0.12877357 0.13712645 0.79400003
0.12950997 0.13643563 0.79000002
0.13006665 0.13557212 0.78500003
0.13144301 0.13557212 0.78500003
0.13248099 0.13522671 0.78300005
0.13351195 0.1348813 0.78100002
0.1347086 0.1347086 0.78000003
0.13572729 0.13436319 0.77800006
0.13673896 0.13401778 0.77600002
0.13774362 0.13367239 0.77400005
0.1391007 0.13367239 0.77400005
0.14045778 0.13367239 0.77400005
0.14181486 0.13367239 0.77400005
0.14317194 0.13367239 0.77400005
0.14434229 0.13349968 0.77300006
0.14588609 0.13367239 0.77400005
0.14724317 0.13367239 0.77400005
0.14898424 0.13401778 0.77600002
0.15034482 0.13401778 0.77600002
0.15131442 0.13367239 0.77400005
0.1526715 0.13367239 0.77400005
0.15442659 0.13401778 0.77600002
0.15578717 0.13401778 0.77600002
0.15714777 0.13401778 0.77600002
0.15850835 0.13401778 0.77600002
0.15986893 0.13401778 0.77600002
0.16122952 0.13401778 0.77600002
0.1625901 0.13401778 0.77600002
0.1639507 0.13401778 0.77600002
0.16531128 0.13401778 0.77600002
0.16667187 0.13401778 0.77600002
0.16803245 0.13401778 0.77600002
0.16939303 0.13401778 0.77600002
0.17119372 0.13436319 0.77800006
0.1725578 0.13436319 0.77800006
0.1739219 0.13436319 0.77800006
0.175286 0.13436319 0.77800006
0.17665009 0.13436319 0.77800006
0.17801417 0.13436319 0.77800006
0.17937827 0.13436319 0.77800006
0.18074237 0.13436319 0.77800006
0.18210647 0.13436319 0.77800006
0.18347055 0.13436319 0.77800006
0.18483464 0.13436319 0.77800006
0.18619874 0.13436319 0.77800006
0.18756284 0.13436319 0.77800006
0.18892692 0.13436319 0.77800006
0.19029102 0.13436319 0.77800006
0.19165511 0.13436319 0.77800006
0.19301921 0.13436319 0.77800006
0.19438329 0.13436319 0.77800006
0.19574739 0.13436319 0.77800006
0.19711149 0.13436319 0.77800006
0.19847558 0.13436319 0.77800006
0.19932595 0.13401778 0.77600002
0.20068653 0.13401778 0.77600002
0.20204712 0.13401778 0.77600002
0.2034077 0.13401778 0.77600002
0.20476829 0.13401778 0.77600002
0.20559762 0.13367239 0.77400005
0.20748946 0.13401778 0.77600002
0.20885006 0.13401778 0.77600002
0.21021064 0.13401778 0.77600002
0.21157123 0.13401778 0.77600002
0.21238302 0.13367239 0.77400005
0.2137401 0.13367239 0.77400005
0.21509717 0.13367239 0.77400005
0.21701357 0.13401778 0.77600002
0.21781133 0.13367239 0.77400005
0.21916842 0.13367239 0.77400005
0.2205255 0.13367239 0.77400005
0.22188258 0.13367239 0.77400005
0.22323966 0.13367239 0.77400005
0.22517709 0.13401778 0.77600002
0.22595382 0.13367239 0.77400005
0.2273109 0.13367239 0.77400005
0.22866797 0.13367239 0.77400005
0.23002505 0.13367239 0.77400005
0.23138213 0.13367239 0.77400005
0.23273923 0.13367239 0.77400005
0.2347012 0.13401778 0.77600002
0.23606178 0.13401778 0.77600002
0.23742238 0.13401778 0.77600002
0.23878296 0.13401778 0.77600002
0.24076247 0.13436319 0.77800006
0.24212657 0.13436319 0.77800006
0.24349065 0.13436319 0.77800006
0.24485475 0.13436319 0.77800006
0.24621885 0.13436319 0.77800006
0.24758294 0.13436319 0.77800006
0.24894702 0.13436319 0.77800006
0.25031114 0.13436319 0.77800006
0.25167522 0.13436319 0.77800006
0.2530393 0.13436319 0.77800006
0.25440341 0.13436319 0.77800006
0.25576749 0.13436319 0.77800006
0.25647059 0.13401778 0.77600002
0.25849569 0.13436319 0.77800006
0.25919175 0.13401778 0.77600002
0.26055235 0.13401778 0.77600002
0.26258796 0.13436319 0.77800006
0.26327351 0.13401778 0.77600002
0.2646341 0.13401778 0.77600002
0.26530913 0.13367239 0.77400005
0.2666662 0.13367239 0.77400005
0.26802331 0.13367239 0.77400005
0.26938039 0.13367239 0.77400005
0.28228053 0.13937159 0.80700004
0.2822893 0.13868077 0.80300003
0.28263733 0.13816267 0.80000001
0.2804895 0.13643563 0.79000002
0.28080422 0.13591753 0.78700006
0.28146699 0.13557212 0.78500003
0.28212273 0.13522671 0.78300005
0.28277147 0.1348813 0.78100002
0.283777 0.1347086 0.78000003
0.28441346 0.13436319 0.77800006
0.28577754 0.13436319 0.77800006
0.28640348 0.13401778 0.77600002
0.28702241 0.13367239 0.77400005
0.2880069 0.13349968 0.77300006
0.28973657 0.13367239 0.77400005
0.29071757 0.13349968 0.77300006
0.29207289 0.13349968 0.77300006
0.29266903 0.13315427 0.77100003
0.29402086 0.13315427 0.77100003
0.29537266 0.13315427 0.77100003
0.2967245 0.13315427 0.77100003
0.2980763 0.13315427 0.77100003
0.29942814 0.13315427 0.77100003
0.30077994 0.13315427 0.77100003
0.30213177 0.13315427 0.77100003
0.30348358 0.13315427 0.77100003
0.30483541 0.13315427 0.77100003
0.30618724 0.13315427 0.77100003
0.30753905 0.13315427 0.77100003
0.30889088 0.13315427 0.77100003
0.31024268 0.13315427 0.77100003
0.31159452 0.13315427 0.77100003
0.31294632 0.13315427 0.77100003
0.31429815 0.13315427 0.77100003
0.31564996 0.13315427 0.77100003
0.31700179 0.13315427 0.77100003
0.31835359 0.13315427 0.77100003
0.32053477 0.13349968 0.77300006
0.32189009 0.13349968 0.77300006
0.32324541 0.13349968 0.77300006
0.32502067 0.13367239 0.77400005
0.32595605 0.13349968 0.77300006
0.3273114 0.13349968 0.77300006
0.32866672 0.13349968 0.77300006
0.33002204 0.13349968 0.77300006
0.33137736 0.13349968 0.77300006
0.33273271 0.13349968 0.77300006
0.33322364 0.13315427 0.77100003
0.33457544 0.13315427 0.77100003
0.33679867 0.13349968 0.77300006
0.33815399 0.13349968 0.77300006
0.33950934 0.13349968 0.77300006
0.34086466 0.13349968 0.77300006
0.34133455 0.13315427 0.77100003
0.34268636 0.13315427 0.77100003
0.34403819 0.13315427 0.77100003
0.34539002 0.13315427 0.77100003
0.34674183 0.13315427 0.77100003
0.34899661 0.13349968 0.77300006
0.34944546 0.13315427 0.77100003
0.3507973 0.13315427 0.77100003
0.3521491 0.13315427 0.77100003
0.35350093 0.13315427 0.77100003
0.35485274 0.13315427 0.77100003
0.35620457 0.13315427 0.77100003
0.35755637 0.13315427 0.77100003
0.35890821 0.13315427 0.77100003
0.36026004 0.13315427 0.77100003
0.36161184 0.13315427 0.77100003
0.36296368 0.13315427 0.77100003
0.36431548 0.13315427 0.77100003
0.36566731 0.13315427 0.77100003
0.36701912 0.13315427 0.77100003
0.36837095 0.13315427 0.77100003
0.36972275 0.13315427 0.77100003
0.37107459 0.13315427 0.77100003
0.37242642 0.13315427 0.77100003
0.37377822 0.13315427 0.77100003
0.37513006 0.13315427 0.77100003
0.37648186 0.13315427 0.77100003
0.37783369 0.13315427 0.77100003
0.3791855 0.13315427 0.77100003
0.38053733 0.13315427 0.77100003
0.38188913 0.13315427 0.77100003
0.38324097 0.13315427 0.77100003
0.38559043 0.13349968 0.77300006
0.38694575 0.13349968 0.77300006
0.38830107 0.13349968 0.77300006
0.38864824 0.13315427 0.77100003
0.39000008 0.13315427 0.77100003
0.39135188 0.13315427 0.77100003
0.39270371 0.13315427 0.77100003
0.39303333 0.13280886 0.76900005
0.39438164 0.13280886 0.76900005
0.39470077 0.13246346 0.76700002
0.39604557 0.13246346 0.76700002
0.39739037 0.13246346 0.76700002
0.39873517 0.13246346 0.76700002
0.40008 0.13246346 0.76700002
0.4014248 0.13246346 0.76700002
0.4027696 0.13246346 0.76700002
0.4041144 0.13246346 0.76700002
0.40493059 0.13229075 0.76600003
0.40627363 0.13229075 0.76600003
0.40761667 0.13229075 0.76600003
0.40895975 0.13229075 0.76600003
0.41030279 0.13229075 0.76600003
0.41164583 0.13229075 0.76600003
-0.00070922333 0.14113544 0.80900002
0.00070922333 0.14113544 0.80900002
0.00212767 0.14113544 0.80900002
0.0035461166 0.14113544 0.80900002
0.0049645635 0.14113544 0.80900002
0.0063830102 0.14113544 0.80900002
0.0078014568 0.14113544 0.80900002
0.0091971103 0.14078653 0.80700004
0.01516195 0.20114854 1.153
0.01712393 0.2004507 1.149
0.019138509 0.2004507 1.149
0.021153091 0.2004507 1.149
0.02316767 0.2004507 1.149
0.025182249 0.2004507 1.149
0.02719683 0.2004507 1.149
0.029211409 0.2004507 1.149
0.031225991 0.2004507 1.149
0.033240572 0.2004507 1.149
0.035132416 0.19975288 1.1450001
0.03726973 0.2004507 1.149
0.039147548 0.19975288 1.1450001
0.041155115 0.19975288 1.1450001
0.043162685 0.19975288 1.1450001
0.045170251 0.19975288 1.1450001
0.047177818 0.19975288 1.1450001
0.049185384 0.19975288 1.1450001
0.05119295 0.19975288 1.1450001
0.053200517 0.19975288 1.1450001
0.055208083 0.19975288 1.1450001
0.05721565 0.19975288 1.1450001
0.059223216 0.19975288 1.1450001
0.061230782 0.19975288 1.1450001
0.063238353 0.19975288 1.1450001
0.065245919 0.19975288 1.1450001
0.067253485 0.19975288 1.1450001
0.069503009 0.2004507 1.149
0.071517587 0.2004507 1.149
0.073532172 0.2004507 1.149
0.075283751 0.19975288 1.1450001
0.077291317 0.19975288 1.1450001
0.079298884 0.19975288 1.1450001
0.081590489 0.2004507 1.149
0.083314016 0.19975288 1.1450001
0.085023515 0.19905506 1.141
0.08702407 0.19905506 1.141
0.089336716 0.19975288 1.1450001
0.091344282 0.19975288 1.1450001
0.093351848 0.19975288 1.1450001
0.095359415 0.19975288 1.1450001
0.097366981 0.19975288 1.1450001
0.099374548 0.19975288 1.1450001
0.10138211 0.19975288 1.1450001
0.10338968 0.19975288 1.1450001
0.10539725 0.19975288 1.1450001
0.10740481 0.19975288 1.1450001
0.10941238 0.19975288 1.1450001
0.11141995 0.19975288 1.1450001
0.096691951 0.1425311 0.81700003
0.098124422 0.1425311 0.81700003
0.099313185 0.14218219 0.81500006
0.10074215 0.14218219 0.81500006
0.10192039 0.14183328 0.81300002
0.10309161 0.14148435 0.81100005
0.10425583 0.14113544 0.80900002
0.10567427 0.14113544 0.80900002
0.10682797 0.14078653 0.80700004
0.10797465 0.14043762 0.80500007
0.10938608 0.14043762 0.80500007
0.11107279 0.14078653 0.80700004
0.11248773 0.14078653 0.80700004
0.11390267 0.14078653 0.80700004
0.11531761 0.14078653 0.80700004
0.11673255 0.14078653 0.80700004
0.11814749 0.14078653 0.80700004
0.11956243 0.14078653 0.80700004
0.12097737 0.14078653 0.80700004
0.12208898 0.14043762 0.80500007
0.12350041 0.14043762 0.80500007
0.12491185 0.14043762 0.80500007
0.12600943 0.14008871 0.80300003
0.12725869 0.13991424 0.80200005
0.128344 0.13956533 0.80000001
0.12877357 0.13851859 0.79400003
0.12950997 0.13782077 0.79000002
0.13006665 0.13694848 0.78500003
0.13144301 0.13694848 0.78500003
0.13248099 0.13659957 0.78300005
0.13351195 0.13625066 0.78100002
0.1347086 0.1360762 0.78000003
0.13572729 0.13572729 0.77800006
0.13673896 0.13537838 0.77600002
0.13809955 0.13537838 0.77600002
0.1391007 0.13502946 0.77400005
0.14045778 0.13502946 0.77400005
0.14181486 0.13502946 0.77400005
0.14317194 0.13502946 0.77400005
0.14452901 0.13502946 0.77400005
0.14588609 0.13502946 0.77400005
0.14724317 0.13502946 0.77400005
0.14898424 0.13537838 0.77600002
0.15034482 0.13537838 0.77600002
0.15170541 0.13537838 0.77600002
0.15306599 0.13537838 0.77600002
0.15442659 0.13537838 0.77600002
0.15578717 0.13537838 0.77600002
0.15714777 0.13537838 0.77600002
0.15850835 0.13537838 0.77600002
0.15986893 0.13537838 0.77600002
0.16122952 0.13537838 0.77600002
0.1625901 0.13537838 0.77600002
0.16437325 0.13572729 0.77800006
0.16531128 0.13537838 0.77600002
0.16667187 0.13537838 0.77600002
0.16846552 0.13572729 0.77800006
0.16982962 0.13572729 0.77800006
0.17119372 0.13572729 0.77800006
0.1725578 0.13572729 0.77800006
0.1739219 0.13572729 0.77800006
0.175286 0.13572729 0.77800006
0.17665009 0.13572729 0.77800006
0.17801417 0.13572729 0.77800006
0.17937827 0.13572729 0.77800006
0.18074237 0.13572729 0.77800006
0.18210647 0.13572729 0.77800006
0.18299891 0.13537838 0.77600002
0.18435949 0.13537838 0.77600002
0.18619874 0.13572729 0.77800006
0.18708067 0.13537838 0.77600002
0.18892692 0.13572729 0.77800006
0.19029102 0.13572729 0.77800006
0.19165511 0.13572729 0.77800006
0.19301921 0.13572729 0.77800006
0.19438329 0.13572729 0.77800006
0.19574739 0.13572729 0.77800006
0.19711149 0.13572729 0.77800006
0.19847558 0.13572729 0.77800006
0.19932595 0.13537838 0.77600002
0.20068653 0.13537838 0.77600002
0.20204712 0.13537838 0.77600002
0.20288345 0.13502946 0.77400005
0.20424055 0.13502946 0.77400005
0.20559762 0.13502946 0.77400005
0.20748946 0.13537838 0.77600002
0.20885006 0.13537838 0.77600002
0.21021064 0.13537838 0.77600002
0.21157123 0.13537838 0.77600002
0.21238302 0.13502946 0.77400005
0.2137401 0.13502946 0.77400005
0.21509717 0.13502946 0.77400005
0.21701357 0.13537838 0.77600002
0.21781133 0.13502946 0.77400005
0.21916842 0.13502946 0.77400005
0.2205255 0.13502946 0.77400005
0.22188258 0.13502946 0.77400005
0.22323966 0.13502946 0.77400005
0.22517709 0.13537838 0.77600002
0.22595382 0.13502946 0.77400005
0.2273109 0.13502946 0.77400005
0.22866797 0.13502946 0.77400005
0.23002505 0.13502946 0.77400005
0.23138213 0.13502946 0.77400005
0.23273923 0.13502946 0.77400005
0.2347012 0.13537838 0.77600002
0.23606178 0.13537838 0.77600002
0.23742238 0.13537838 0.77600002
0.23878296 0.13537838 0.77600002
0.24014355 0.13537838 0.77600002
0.24212657 0.13572729 0.77800006
0.24349065 0.13572729 0.77800006
0.24485475 0.13572729 0.77800006
0.24621885 0.13572729 0.77800006
0.24758294 0.13572729 0.77800006
0.24894702 0.13572729 0.77800006
0.25031114 0.13572729 0.77800006
0.25167522 0.13572729 0.77800006
0.2530393 0.13572729 0.77800006
0.2537494 0.13537838 0.77600002
0.25511 0.13537838 0.77600002
0.25713161 0.13572729 0.77800006
0.25783119 0.13537838 0.77600002
0.25985977 0.13572729 0.77800006
0.26122388 0.13572729 0.77800006
0.26258796 0.13572729 0.77800006
0.26327351 0.13537838 0.77600002
0.2646341 0.13537838 0.77600002
0.2659947 0.13537838 0.77600002
0.26735529 0.13537838 0.77600002
0.26871586 0.13537838 0.77600002
0.27007645 0.13537838 0.77600002
0.28088138 0.14008871 0.80300003
0.2822893 0.14008871 0.80300003
0.28263733 0.13956533 0.80000001
0.2811996 0.13816968 0.79200006
0.28080422 0.13729739 0.78700006
0.28146699 0.13694848 0.78500003
0.28212273 0.13659957 0.78300005
0.28277147 0.13625066 0.78100002
0.283777 0.1360762 0.78000003
0.28441346 0.13572729 0.77800006
0.28577754 0.13572729 0.77800006
0.28640348 0.13537838 0.77600002
0.28702241 0.13502946 0.77400005
0.28837949 0.13502946 0.77400005
0.28973657 0.13502946 0.77400005
0.29071757 0.134855 0.77300006
0.29207289 0.134855 0.77300006
0.29342821 0.134855 0.77300006
0.29478356 0.134855 0.77300006
0.29613888 0.134855 0.77300006
0.2967245 0.13450609 0.77100003
0.2980763 0.13450609 0.77100003
0.29942814 0.13450609 0.77100003
0.30077994 0.13450609 0.77100003
0.30213177 0.13450609 0.77100003
0.30348358 0.13450609 0.77100003
0.30483541 0.13450609 0.77100003
0.30618724 0.13450609 0.77100003
0.30753905 0.13450609 0.77100003
0.30889088 0.13450609 0.77100003
0.31024268 0.13450609 0.77100003
0.31159452 0.13450609 0.77100003
0.31294632 0.13450609 0.77100003
0.31429815 0.13450609 0.77100003
0.31564996 0.13450609 0.77100003
0.31700179 0.13450609 0.77100003
0.31835359 0.13450609 0.77100003
0.31970543 0.13450609 0.77100003
0.32189009 0.134855 0.77300006
0.32324541 0.134855 0.77300006
0.32460073 0.134855 0.77300006
0.32595605 0.134855 0.77300006
0.3273114 0.134855 0.77300006
0.32781634 0.13450609 0.77100003
0.33002204 0.134855 0.77300006
0.33137736 0.134855 0.77300006
0.33273271 0.134855 0.77300006
0.33322364 0.13450609 0.77100003
0.33457544 0.13450609 0.77100003
0.33592728 0.13450609 0.77100003
0.33815399 0.134855 0.77300006
0.33950934 0.134855 0.77300006
0.34086466 0.134855 0.77300006
0.34133455 0.13450609 0.77100003
0.34268636 0.13450609 0.77100003
0.34403819 0.13450609 0.77100003
0.34539002 0.13450609 0.77100003
0.34674183 0.13450609 0.77100003
0.34809366 0.13450609 0.77100003
0.34944546 0.13450609 0.77100003
0.3507973 0.13450609 0.77100003
0.3521491 0.13450609 0.77100003
0.35350093 0.13450609 0.77100003
0.35485274 0.13450609 0.77100003
0.35620457 0.13450609 0.77100003
0.35755637 0.13450609 0.77100003
0.35890821 0.13450609 0.77100003
0.36026004 0.13450609 0.77100003
0.36161184 0.13450609 0.77100003
0.36296368 0.13450609 0.77100003
0.36431548 0.13450609 0.77100003
0.36566731 0.13450609 0.77100003
0.36701912 0.13450609 0.77100003
0.36837095 0.13450609 0.77100003
0.36972275 0.13450609 0.77100003
0.37107459 0.13450609 0.77100003
0.37242642 0.13450609 0.77100003
0.37377822 0.13450609 0.77100003
0.37513006 0.13450609 0.77100003
0.37648186 0.13450609 0.77100003
0.37783369 0.13450609 0.77100003
0.3791855 0.13450609 0.77100003
0.38053733 0.13450609 0.77100003
0.38188913 0.13450609 0.77100003
0.38324097 0.13450609 0.77100003
0.38559043 0.134855 0.77300006
0.38694575 0.134855 0.77300006
0.38830107 0.134855 0.77300006
0.38864824 0.13450609 0.77100003
0.39000008 0.13450609 0.77100003
0.39135188 0.13450609 0.77100003
0.39270371 0.13450609 0.77100003
0.39405552 0.13450609 0.77100003
0.39438164 0.13415718 0.76900005
0.39470077 0.13380826 0.76700002
0.39604557 0.13380826 0.76700002
0.39739037 0.13380826 0.76700002
0.39873517 0.13380826 0.76700002
0.40008 0.13380826 0.76700002
0.4014248 0.13380826 0.76700002
0.4027696 0.13380826 0.76700002
0.40358752 0.13363381 0.76600003
0.40493059 0.13363381 0.76600003
0.40627363 0.13363381 0.76600003
0.40761667 0.13363381 0.76600003
0.40895975 0.13363381 0.76600003
0.40923151 0.1332849 0.76400006
0.41164583 0.13363381 0.76600003
-0.00070922333 0.1425539 0.80900002
0.00070922333 0.1425539 0.80900002
0.00212767 0.1425539 0.80900002
0.0035461166 0.1425539 0.80900002
0.0049645635 0.1425539 0.80900002
0.0063830102 0.1425539 0.80900002
0.0078014568 0.1425539 0.80900002
0.0091971103 0.14220147 0.80700004
0.01510935 0.2024653 1.149
0.01712393 0.2024653 1.149
0.019138509 0.2024653 1.149
0.021153091 0.2024653 1.149
0.02316767 0.2024653 1.149
0.025182249 0.2024653 1.149
0.02719683 0.2024653 1.149
0.029211409 0.2024653 1.149
0.031225991 0.2024653 1.149
0.033240572 0.2024653 1.149
0.035132416 0.20176046 1.1450001
0.037139982 0.20176046 1.1450001
0.039147548 0.20176046 1.1450001
0.041155115 0.20176046 1.1450001
0.043162685 0.20176046 1.1450001
0.045170251 0.20176046 1.1450001
0.047177818 0.20176046 1.1450001
0.049185384 0.20176046 1.1450001
0.05119295 0.20176046 1.1450001
0.053200517 0.20176046 1.1450001
0.055208083 0.20176046 1.1450001
0.05721565 0.20176046 1.1450001
0.059223216 0.20176046 1.1450001
0.061230782 0.20176046 1.1450001
0.063238353 0.20176046 1.1450001
0.065245919 0.20176046 1.1450001
0.067253485 0.20176046 1.1450001
0.069503009 0.2024653 1.149
0.071268618 0.20176046 1.1450001
0.073532172 0.2024653 1.149
0.075546749 0.2024653 1.149
0.077291317 0.20176046 1.1450001
0.079298884 0.20176046 1.1450001
0.081590489 0.2024653 1.149
0.083314016 0.20176046 1.1450001
0.085321583 0.20176046 1.1450001
0.087329149 0.20176046 1.1450001
0.089336716 0.20176046 1.1450001
0.091344282 0.20176046 1.1450001
0.093351848 0.20176046 1.1450001
0.095359415 0.20176046 1.1450001
0.097366981 0.20176046 1.1450001
0.099374548 0.20176046 1.1450001
0.10138211 0.20176046 1.1450001
0.10338968 0.20176046 1.1450001
0.10539725 0.20176046 1.1450001
0.10740481 0.20176046 1.1450001
0.10941238 0.20176046 1.1450001
0.11141995 0.20176046 1.1450001
0.096691951 0.14396358 0.81700003
0.097884215 0.14361115 0.81500006
0.099313185 0.14361115 0.81500006
0.10049493 0.14325874 0.81300002
0.10192039 0.14325874 0.81300002
0.10309161 0.14290631 0.81100005
0.10425583 0.1425539 0.80900002
0.10541303 0.14220147 0.80700004
0.10682797 0.14220147 0.80700004
0.10797465 0.14184906 0.80500007
0.10938608 0.14184906 0.80500007
0.11079752 0.14184906 0.80500007
0.11248773 0.14220147 0.80700004
0.11390267 0.14220147 0.80700004
0.11531761 0.14220147 0.80700004
0.11673255 0.14220147 0.80700004
0.11814749 0.14220147 0.80700004
0.11956243 0.14220147 0.80700004
0.12097737 0.14220147 0.80700004
0.12208898 0.14184906 0.80500007
0.12350041 0.14184906 0.80500007
0.12491185 0.14184906 0.80500007
0.12600943 0.14149663 0.80300003
0.12694134 0.14096799 0.80000001
0.128344 0.14096799 0.80000001
0.12942229 0.14061558 0.79800004
0.12983784 0.13955832 0.79200006
0.13006665 0.13832484 0.78500003
0.13110813 0.13797243 0.78300005
0.13214259 0.13762 0.78100002
0.13351195 0.13762 0.78100002
0.1347086 0.1374438 0.78000003
0.13572729 0.13709138 0.77800006
0.13673896 0.13673896 0.77600002
0.13809955 0.13673896 0.77600002
0.1391007 0.13638654 0.77400005
0.14045778 0.13638654 0.77400005
0.14181486 0.13638654 0.77400005
0.14317194 0.13638654 0.77400005
0.14452901 0.13638654 0.77400005
0.14588609 0.13638654 0.77400005
0.14724317 0.13638654 0.77400005
0.14898424 0.13673896 0.77600002
0.15034482 0.13673896 0.77600002
0.15131442 0.13638654 0.77400005
0.15306599 0.13673896 0.77600002
0.15442659 0.13673896 0.77600002
0.15578717 0.13673896 0.77600002
0.15714777 0.13673896 0.77600002
0.15850835 0.13673896 0.77600002
0.15986893 0.13673896 0.77600002
0.16122952 0.13673896 0.77600002
0.1625901 0.13673896 0.77600002
0.1639507 0.13673896 0.77600002
0.16531128 0.13673896 0.77600002
0.16667187 0.13673896 0.77600002
0.16803245 0.13673896 0.77600002
0.16982962 0.13709138 0.77800006
0.17119372 0.13709138 0.77800006
0.1725578 0.13709138 0.77800006
0.1739219 0.13709138 0.77800006
0.175286 0.13709138 0.77800006
0.17665009 0.13709138 0.77800006
0.17801417 0.13709138 0.77800006
0.17937827 0.13709138 0.77800006
0.18074237 0.13709138 0.77800006
0.18210647 0.13709138 0.77800006
0.18347055 0.13709138 0.77800006
0.18483464 0.13709138 0.77800006
0.18619874 0.13709138 0.77800006
0.18756284 0.13709138 0.77800006
0.18892692 0.13709138 0.77800006
0.19029102 0.13709138 0.77800006
0.19165511 0.13709138 0.77800006
0.19301921 0.13709138 0.77800006
0.19438329 0.13709138 0.77800006
0.19574739 0.13709138 0.77800006
0.19711149 0.13709138 0.77800006
0.19847558 0.13709138 0.77800006
0.19932595 0.13673896 0.77600002
0.20068653 0.13673896 0.77600002
0.20204712 0.13673896 0.77600002
0.2034077 0.13673896 0.77600002
0.20424055 0.13638654 0.77400005
0.20559762 0.13638654 0.77400005
0.20748946 0.13673896 0.77600002
0.20885006 0.13673896 0.77600002
0.21021064 0.13673896 0.77600002
0.21157123 0.13673896 0.77600002
0.21293181 0.13673896 0.77600002
0.21429239 0.13673896 0.77600002
0.21565299 0.13673896 0.77600002
0.21701357 0.13673896 0.77600002
0.21837416 0.13673896 0.77600002
0.21916842 0.13638654 0.77400005
0.22109534 0.13673896 0.77600002
0.22188258 0.13638654 0.77400005
0.2238165 0.13673896 0.77600002
0.22517709 0.13673896 0.77600002
0.22653767 0.13673896 0.77600002
0.22789827 0.13673896 0.77600002
0.22925885 0.13673896 0.77600002
0.23061945 0.13673896 0.77600002
0.23198003 0.13673896 0.77600002
0.23334061 0.13673896 0.77600002
0.2347012 0.13673896 0.77600002
0.23606178 0.13673896 0.77600002
0.23803428 0.13709138 0.77800006
0.23878296 0.13673896 0.77600002
0.24076247 0.13709138 0.77800006
0.24212657 0.13709138 0.77800006
0.24349065 0.13709138 0.77800006
0.24485475 0.13709138 0.77800006
0.24621885 0.13709138 0.77800006
0.24758294 0.13709138 0.77800006
0.24830706 0.13673896 0.77600002
0.25031114 0.13709138 0.77800006
0.25167522 0.13709138 0.77800006
0.2530393 0.13709138 0.77800006
0.2537494 0.13673896 0.77600002
0.25511 0.13673896 0.77600002
0.25647059 0.13673896 0.77600002
0.25783119 0.13673896 0.77600002
0.25919175 0.13673896 0.77600002
0.26055235 0.13673896 0.77600002
0.26258796 0.13709138 0.77800006
0.26327351 0.13673896 0.77600002
0.2646341 0.13673896 0.77600002
0.2659947 0.13673896 0.77600002
0.26735529 0.13673896 0.77600002
0.26871586 0.13673896 0.77600002
0.27007645 0.13673896 0.77600002
0.28088138 0.14149663 0.80300003
0.28193775 0.14132042 0.80200005
0.28263733 0.14096799 0.80000001
0.2811996 0.13955832 0.79200006
0.28151783 0.13902968 0.78900003
0.28146699 0.13832484 0.78500003
0.28212273 0.13797243 0.78300005
0.28277147 0.13762 0.78100002
0.283777 0.1374438 0.78000003
0.28441346 0.13709138 0.77800006
0.28577754 0.13709138 0.77800006
0.28566533 0.13638654 0.77400005
0.28702241 0.13638654 0.77400005
0.2880069 0.13621032 0.77300006
0.28973657 0.13638654 0.77400005
0.29071757 0.13621032 0.77300006
0.29245073 0.13638654 0.77400005
0.29342821 0.13621032 0.77300006
0.29478356 0.13621032 0.77300006
0.29613888 0.13621032 0.77300006
0.2967245 0.13585791 0.77100003
0.2980763 0.13585791 0.77100003
0.29942814 0.13585791 0.77100003
0.30077994 0.13585791 0.77100003
0.30213177 0.13585791 0.77100003
0.30348358 0.13585791 0.77100003
0.30483541 0.13585791 0.77100003
0.30618724 0.13585791 0.77100003
0.30753905 0.13585791 0.77100003
0.30889088 0.13585791 0.77100003
0.31024268 0.13585791 0.77100003
0.31159452 0.13585791 0.77100003
0.31294632 0.13585791 0.77100003
0.31429815 0.13585791 0.77100003
0.31564996 0.13585791 0.77100003
0.31700179 0.13585791 0.77100003
0.31835359 0.13585791 0.77100003
0.31970543 0.13585791 0.77100003
0.32189009 0.13621032 0.77300006
0.32324541 0.13621032 0.77300006
0.32460073 0.13621032 0.77300006
0.3251127 0.13585791 0.77100003
0.32646453 0.13585791 0.77100003
0.32781634 0.13585791 0.77100003
0.32916817 0.13585791 0.77100003
0.33137736 0.13621032 0.77300006
0.33187181 0.13585791 0.77100003
0.33322364 0.13585791 0.77100003
0.33457544 0.13585791 0.77100003
0.33679867 0.13621032 0.77300006
0.33815399 0.13621032 0.77300006
0.33950934 0.13621032 0.77300006
0.34086466 0.13621032 0.77300006
0.34133455 0.13585791 0.77100003
0.34268636 0.13585791 0.77100003
0.34403819 0.13585791 0.77100003
0.34539002 0.13585791 0.77100003
0.34674183 0.13585791 0.77100003
0.34809366 0.13585791 0.77100003
0.34944546 0.13585791 0.77100003
0.3507973 0.13585791 0.77100003
0.3521491 0.13585791 0.77100003
0.35350093 0.13585791 0.77100003
0.35485274 0.13585791 0.77100003
0.35620457 0.13585791 0.77100003
0.35755637 0.13585791 0.77100003
0.35890821 0.13585791 0.77100003
0.36026004 0.13585791 0.77100003
0.36161184 0.13585791 0.77100003
0.36296368 0.13585791 0.77100003
0.36431548 0.13585791 0.77100003
0.36566731 0.13585791 0.77100003
0.36701912 0.13585791 0.77100003
0.3693265 0.13621032 0.77300006
0.36972275 0.13585791 0.77100003
0.37203717 0.13621032 0.77300006
0.37242642 0.13585791 0.77100003
0.37377822 0.13585791 0.77100003
0.37513006 0.13585791 0.77100003
0.37648186 0.13585791 0.77100003
0.37783369 0.13585791 0.77100003
0.3791855 0.13585791 0.77100003
0.38053733 0.13585791 0.77100003
0.38188913 0.13585791 0.77100003
0.38324097 0.13585791 0.77100003
0.3845928 0.13585791 0.77100003
0.38694575 0.13621032 0.77300006
0.38830107 0.13621032 0.77300006
0.38864824 0.13585791 0.77100003
0.39000008 0.13585791 0.77100003
0.39135188 0.13585791 0.77100003
0.39270371 0.13585791 0.77100003
0.39405552 0.13585791 0.77100003
0.39438164 0.13550548 0.76900005
0.39572996 0.13550548 0.76900005
0.39604557 0.13515307 0.76700002
0.39739037 0.13515307 0.76700002
0.39873517 0.13515307 0.76700002
0.40008 0.13515307 0.76700002
0.4014248 0.13515307 0.76700002
0.4027696 0.13515307 0.76700002
0.40358752 0.13497686 0.76600003
0.40493059 0.13497686 0.76600003
0.40627363 0.13497686 0.76600003
0.40761667 0.13497686 0.76600003
0.40895975 0.13497686 0.76600003
0.40923151 0.13462444 0.76400006
0.41057104 0.13462444 0.76400006
0.41191059 0.13462444 0.76400006
-0.00070922333 0.14397234 0.80900002
0.00070922333 0.14397234 0.80900002
0.00212767 0.14397234 0.80900002
0.0035461166 0.14397234 0.80900002
0.0049645635 0.14397234 0.80900002
0.0063830102 0.14397234 0.80900002
0.0078014568 0.14397234 0.80900002
0.0091971103 0.14361641 0.80700004
0.01516195 0.20519172 1.153
0.01712393 0.20447987 1.149
0.019138509 0.20447987 1.149
0.021153091 0.20447987 1.149
0.02316767 0.20447987 1.149
0.025182249 0.20447987 1.149
0.02719683 0.20447987 1.149
0.029211409 0.20447987 1.149
0.031225991 0.20447987 1.149
0.033240572 0.20447987 1.149
0.035132416 0.20376801 1.1450001
0.037139982 0.20376801 1.1450001
0.039147548 0.20376801 1.1450001
0.041155115 0.20376801 1.1450001
0.043162685 0.20376801 1.1450001
0.045170251 0.20376801 1.1450001
0.047177818 0.20376801 1.1450001
0.049185384 0.20376801 1.1450001
0.05119295 0.20376801 1.1450001
0.053200517 0.20376801 1.1450001
0.055208083 0.20376801 1.1450001
0.05721565 0.20376801 1.1450001
0.059223216 0.20376801 1.1450001
0.061230782 0.20376801 1.1450001
0.063238353 0.20376801 1.1450001
0.065245919 0.20376801 1.1450001
0.067253485 0.20376801 1.1450001
0.069261052 0.20376801 1.1450001
0.071268618 0.20376801 1.1450001
0.073276184 0.20376801 1.1450001
0.075283751 0.20376801 1.1450001
0.077291317 0.20376801 1.1450001
0.079298884 0.20376801 1.1450001
0.081590489 0.20447987 1.149
0.083314016 0.20376801 1.1450001
0.085321583 0.20376801 1.1450001
0.087329149 0.20376801 1.1450001
0.089336716 0.20376801 1.1450001
0.091344282 0.20376801 1.1450001
0.093351848 0.20376801 1.1450001
0.095359415 0.20376801 1.1450001
0.097366981 0.20376801 1.1450001
0.099374548 0.20376801 1.1450001
0.10138211 0.20376801 1.1450001
0.10338968 0.20376801 1.1450001
0.10539725 0.20376801 1.1450001
0.10740481 0.20376801 1.1450001
0.10941238 0.20376801 1.1450001
0.095259473 0.14539604 0.81700003
0.096455246 0.14504011 0.81500006
0.097884215 0.14504011 0.81500006
0.099313185 0.14504011 0.81500006
0.10049493 0.1446842 0.81300002
0.10166966 0.14432827 0.81100005
0.10309161 0.14432827 0.81100005
0.10425583 0.14397234 0.80900002
0.10541303 0.14361641 0.80700004
0.10682797 0.14361641 0.80700004
0.10797465 0.14326048 0.80500007
0.10938608 0.14326048 0.80500007
0.11107279 0.14361641 0.80700004
0.11248773 0.14361641 0.80700004
0.11390267 0.14361641 0.80700004
0.11531761 0.14361641 0.80700004
0.11673255 0.14361641 0.80700004
0.11814749 0.14361641 0.80700004
0.11956243 0.14361641 0.80700004
0.12097737 0.14361641 0.80700004
0.12208898 0.14326048 0.80500007
0.12350041 0.14326048 0.80500007
0.12491185 0.14326048 0.80500007
0.12600943 0.14290455 0.80300003
0.12725869 0.14272659 0.80200005
0.128344 0.14237067 0.80000001
0.12974666 0.14237067 0.80000001
0.12983784 0.14094695 0.79200006
0.13006665 0.13970122 0.78500003
0.13110813 0.13934529 0.78300005
0.13214259 0.13898936 0.78100002
0.13351195 0.13898936 0.78100002
0.1347086 0.13881139 0.78000003
0.13572729 0.13845547 0.77800006
0.13673896 0.13809955 0.77600002
0.13809955 0.13809955 0.77600002
0.1391007 0.13774362 0.77400005
0.14045778 0.13774362 0.77400005
0.14181486 0.13774362 0.77400005
0.14317194 0.13774362 0.77400005
0.14452901 0.13774362 0.77400005
0.14588609 0.13774362 0.77400005
0.14762366 0.13809955 0.77600002
0.14898424 0.13809955 0.77600002
0.15034482 0.13809955 0.77600002
0.15131442 0.13774362 0.77400005
0.1526715 0.13774362 0.77400005
0.15442659 0.13809955 0.77600002
0.15578717 0.13809955 0.77600002
0.15714777 0.13809955 0.77600002
0.15850835 0.13809955 0.77600002
0.15986893 0.13809955 0.77600002
0.16122952 0.13809955 0.77600002
0.1625901 0.13809955 0.77600002
0.1639507 0.13809955 0.77600002
0.16531128 0.13809955 0.77600002
0.16667187 0.13809955 0.77600002
0.16803245 0.13809955 0.77600002
0.16982962 0.13845547 0.77800006
0.17119372 0.13845547 0.77800006
0.1725578 0.13845547 0.77800006
0.1734748 0.13809955 0.77600002
0.175286 0.13845547 0.77800006
0.17665009 0.13845547 0.77800006
0.17801417 0.13845547 0.77800006
0.17937827 0.13845547 0.77800006
0.18074237 0.13845547 0.77800006
0.18210647 0.13845547 0.77800006
0.18299891 0.13809955 0.77600002
0.18483464 0.13845547 0.77800006
0.18619874 0.13845547 0.77800006
0.18756284 0.13845547 0.77800006
0.18892692 0.13845547 0.77800006
0.19029102 0.13845547 0.77800006
0.19214779 0.13881139 0.78000003
0.19351541 0.13881139 0.78000003
0.194883 0.13881139 0.78000003
0.1962506 0.13881139 0.78000003
0.19711149 0.13845547 0.77800006
0.19847558 0.13845547 0.77800006
0.19932595 0.13809955 0.77600002
0.20068653 0.13809955 0.77600002
0.20204712 0.13809955 0.77600002
0.2034077 0.13809955 0.77600002
0.20424055 0.13774362 0.77400005
0.20559762 0.13774362 0.77400005
0.20748946 0.13809955 0.77600002
0.20885006 0.13809955 0.77600002
0.21021064 0.13809955 0.77600002
0.21157123 0.13809955 0.77600002
0.21293181 0.13809955 0.77600002
0.21429239 0.13809955 0.77600002
0.21565299 0.13809955 0.77600002
0.21701357 0.13809955 0.77600002
0.21837416 0.13809955 0.77600002
0.21916842 0.13774362 0.77400005
0.2205255 0.13774362 0.77400005
0.22188258 0.13774362 0.77400005
0.2238165 0.13809955 0.77600002
0.22517709 0.13809955 0.77600002
0.22653767 0.13809955 0.77600002
0.22789827 0.13809955 0.77600002
0.22925885 0.13809955 0.77600002
0.23061945 0.13809955 0.77600002
0.23198003 0.13809955 0.77600002
0.23334061 0.13809955 0.77600002
0.2347012 0.13809955 0.77600002
0.23606178 0.13809955 0.77600002
0.23803428 0.13845547 0.77800006
0.23878296 0.13809955 0.77600002
0.24076247 0.13845547 0.77800006
0.24212657 0.13845547 0.77800006
0.24349065 0.13845547 0.77800006
0.24485475 0.13845547 0.77800006
0.24621885 0.13845547 0.77800006
0.24694648 0.13809955 0.77600002
0.24830706 0.13809955 0.77600002
0.25031114 0.13845547 0.77800006
0.25167522 0.13845547 0.77800006
0.25238883 0.13809955 0.77600002
0.2537494 0.13809955 0.77600002
0.25511 0.13809955 0.77600002
0.25647059 0.13809955 0.77600002
0.25783119 0.13809955 0.77600002
0.25919175 0.13809955 0.77600002
0.26055235 0.13809955 0.77600002
0.26191294 0.13809955 0.77600002
0.26327351 0.13809955 0.77600002
0.2646341 0.13809955 0.77600002
0.2659947 0.13809955 0.77600002
0.26735529 0.13809955 0.77600002
0.26871586 0.13809955 0.77600002
0.27912539 0.14272659 0.80200005
0.28053159 0.14272659 0.80200005
0.28193775 0.14272659 0.80200005
0.28263733 0.14237067 0.80000001
0.2826198 0.14165881 0.79600006
0.28151783 0.14041308 0.78900003
0.28218409 0.14005715 0.78700006
0.28212273 0.13934529 0.78300005
0.28277147 0.13898936 0.78100002
0.283777 0.13881139 0.78000003
0.28441346 0.13845547 0.77800006
0.28577754 0.13845547 0.77800006
0.28566533 0.13774362 0.77400005
0.28665158 0.13756566 0.77300006
0.2880069 0.13756566 0.77300006
0.28973657 0.13774362 0.77400005
0.29109365 0.13774362 0.77400005
0.29245073 0.13774362 0.77400005
0.29342821 0.13756566 0.77300006
0.29478356 0.13756566 0.77300006
0.29613888 0.13756566 0.77300006
0.2974942 0.13756566 0.77300006
0.2980763 0.13720973 0.77100003
0.29942814 0.13720973 0.77100003
0.30077994 0.13720973 0.77100003
0.30213177 0.13720973 0.77100003
0.30348358 0.13720973 0.77100003
0.30483541 0.13720973 0.77100003
0.30618724 0.13720973 0.77100003
0.30753905 0.13720973 0.77100003
0.30889088 0.13720973 0.77100003
0.31024268 0.13720973 0.77100003
0.31159452 0.13720973 0.77100003
0.31294632 0.13720973 0.77100003
0.31429815 0.13720973 0.77100003
0.31564996 0.13720973 0.77100003
0.31700179 0.13720973 0.77100003
0.31835359 0.13720973 0.77100003
0.31970543 0.13720973 0.77100003
0.32189009 0.13756566 0.77300006
0.32324541 0.13756566 0.77300006
0.32460073 0.13756566 0.77300006
0.3251127 0.13720973 0.77100003
0.3273114 0.13756566 0.77300006
0.32781634 0.13720973 0.77100003
0.32916817 0.13720973 0.77100003
0.33137736 0.13756566 0.77300006
0.33187181 0.13720973 0.77100003
0.33322364 0.13720973 0.77100003
0.33457544 0.13720973 0.77100003
0.33592728 0.13720973 0.77100003
0.33815399 0.13756566 0.77300006
0.33950934 0.13756566 0.77300006
0.34086466 0.13756566 0.77300006
0.34133455 0.13720973 0.77100003
0.34268636 0.13720973 0.77100003
0.34403819 0.13720973 0.77100003
0.34539002 0.13720973 0.77100003
0.34674183 0.13720973 0.77100003
0.34809366 0.13720973 0.77100003
0.34944546 0.13720973 0.77100003
0.3507973 0.13720973 0.77100003
0.3521491 0.13720973 0.77100003
0.35350093 0.13720973 0.77100003
0.35485274 0.13720973 0.77100003
0.35620457 0.13720973 0.77100003
0.35755637 0.13720973 0.77100003
0.35890821 0.13720973 0.77100003
0.36026004 0.13720973 0.77100003
0.36161184 0.13720973 0.77100003
0.36296368 0.13720973 0.77100003
0.36431548 0.13720973 0.77100003
0.36566731 0.13720973 0.77100003
0.36701912 0.13720973 0.77100003
0.3693265 0.13756566 0.77300006
0.36972275 0.13720973 0.77100003
0.37107459 0.13720973 0.77100003
0.37242642 0.13720973 0.77100003
0.37377822 0.13720973 0.77100003
0.37513006 0.13720973 0.77100003
0.37745848 0.13756566 0.77300006
0.37783369 0.13720973 0.77100003
0.3791855 0.13720973 0.77100003
0.38053733 0.13720973 0.77100003
0.38188913 0.13720973 0.77100003
0.38324097 0.13720973 0.77100003
0.3845928 0.13720973 0.77100003
0.38694575 0.13756566 0.77300006
0.38830107 0.13756566 0.77300006
0.38864824 0.13720973 0.77100003
0.39000008 0.13720973 0.77100003
0.39135188 0.13720973 0.77100003
0.39270371 0.13720973 0.77100003
0.39405552 0.13720973 0.77100003
0.39540735 0.13720973 0.77100003
0.39572996 0.1368538 0.76900005
0.39604557 0.13649787 0.76700002
0.39739037 0.13649787 0.76700002
0.39873517 0.13649787 0.76700002
0.40008 0.13649787 0.76700002
0.4014248 0.13649787 0.76700002
0.4027696 0.13649787 0.76700002
0.40358752 0.13631991 0.76600003
0.40493059 0.13631991 0.76600003
0.40627363 0.13631991 0.76600003
0.40761667 0.13631991 0.76600003
0.40895975 0.13631991 0.76600003
0.40923151 0.13596399 0.76400006
0.41057104 0.13596399 0.76400006
0.41191059 0.13596399 0.76400006
0.00070922333 0.14539078 0.80900002
0.00212767 0.14539078 0.80900002
0.0035461166 0.14539078 0.80900002
0.0049645635 0.14539078 0.80900002
0.0063830102 0.14539078 0.80900002
0.0078014568 0.14539078 0.80900002
0.0092199035 0.14539078 0.80900002
0.01063835 0.14539078 0.80900002
0.01712393 0.20649445 1.149
0.019138509 0.20649445 1.149
0.021153091 0.20649445 1.149
0.02316767 0.20649445 1.149
0.025182249 0.20649445 1.149
0.02719683 0.20649445 1.149
0.029109716 0.20577559 1.1450001
0.031117283 0.20577559 1.1450001
0.033240572 0.20649445 1.149
0.035132416 0.20577559 1.1450001
0.037139982 0.20577559 1.1450001
0.039147548 0.20577559 1.1450001
0.041155115 0.20577559 1.1450001
0.043162685 0.20577559 1.1450001
0.045170251 0.20577559 1.1450001
0.047177818 0.20577559 1.1450001
0.049185384 0.20577559 1.1450001
0.05119295 0.20577559 1.1450001
0.053200517 0.20577559 1.1450001
0.055208083 0.20577559 1.1450001
0.05721565 0.20577559 1.1450001
0.059223216 0.20577559 1.1450001
0.061230782 0.20577559 1.1450001
0.063238353 0.20577559 1.1450001
0.065245919 0.20577559 1.1450001
0.067253485 0.20577559 1.1450001
0.069261052 0.20577559 1.1450001
0.071268618 0.20577559 1.1450001
0.073276184 0.20577559 1.1450001
0.075283751 0.20577559 1.1450001
0.077561326 0.20649445 1.149
0.079298884 0.20577559 1.1450001
0.081590489 0.20649445 1.149
0.083314016 0.20577559 1.1450001
0.085321583 0.20577559 1.1450001
0.087329149 0.20577559 1.1450001
0.089336716 0.20577559 1.1450001
0.091344282 0.20577559 1.1450001
0.093351848 0.20577559 1.1450001
0.095359415 0.20577559 1.1450001
0.097366981 0.20577559 1.1450001
0.099374548 0.20577559 1.1450001
0.10138211 0.20577559 1.1450001
0.10338968 0.20577559 1.1450001
0.10539725 0.20577559 1.1450001
0.10740481 0.20577559 1.1450001
0.10941238 0.20577559 1.1450001
0.11141995 0.20577559 1.1450001
0.095259473 0.14682852 0.81700003
0.096455246 0.14646909 0.81500006
0.097884215 0.14646909 0.81500006
0.099069469 0.14610966 0.81300002
0.10049493 0.14610966 0.81300002
0.10166966 0.14575021 0.81100005
0.10283738 0.14539078 0.80900002
0.10425583 0.14539078 0.80900002
0.10567427 0.14539078 0.80900002
0.10682797 0.14503135 0.80700004
0.10797465 0.14467192 0.80500007
0.10938608 0.14467192 0.80500007
0.11107279 0.14503135 0.80700004
0.11248773 0.14503135 0.80700004
0.11390267 0.14503135 0.80700004
0.11531761 0.14503135 0.80700004
0.11673255 0.14503135 0.80700004
0.11814749 0.14503135 0.80700004
0.11956243 0.14503135 0.80700004
0.12097737 0.14503135 0.80700004
0.12208898 0.14467192 0.80500007
0.12350041 0.14467192 0.80500007
0.12491185 0.14467192 0.80500007
0.12600943 0.14431249 0.80300003
0.12725869 0.14413276 0.80200005
0.12866487 0.14413276 0.80200005
0.12942229 0.1434139 0.79800004
0.12934603 0.14179645 0.78900003
0.13006665 0.14107758 0.78500003
0.13110813 0.14071815 0.78300005
0.13248099 0.14071815 0.78300005
0.13351195 0.14035872 0.78100002
0.1347086 0.14017899 0.78000003
0.13572729 0.13981956 0.77800006
0.13673896 0.13946013 0.77600002
0.13809955 0.13946013 0.77600002
0.13946013 0.13946013 0.77600002
0.14045778 0.1391007 0.77400005
0.14181486 0.1391007 0.77400005
0.14317194 0.1391007 0.77400005
0.14452901 0.1391007 0.77400005
0.14626306 0.13946013 0.77600002
0.14762366 0.13946013 0.77600002
0.14898424 0.13946013 0.77600002
0.15034482 0.13946013 0.77600002
0.15131442 0.1391007 0.77400005
0.1526715 0.1391007 0.77400005
0.15442659 0.13946013 0.77600002
